# .PCD v.7 - Point Cloud Data file format
VERSION .7
FIELDS x y z rgb
SIZE 4 4 4 1
TYPE F F F I
COUNT 1 1 1 4
WIDTH 100
HEIGHT 1
VIEWPOINT 0 0 0 1 0 0 0
POINTS 100
DATA ascii
-0.593994 -0.391653 1.89164 184 199 254 1
-0.587859 -0.471874 1.87888 34 179 207 1
-0.647276 -0.484834 1.80919 52 78 95 1
0.230582 -0.319427 2.24459 218 233 242 1
-0.512954 -0.620996 1.94862 232 237 236 1
0.240846 -0.255635 2.26088 228 243 252 1
0.0130437 -0.636555 2.27883 199 219 230 1
-0.0337857 -0.585673 2.31596 191 213 225 1
-0.00574114 -0.618494 2.29776 197 217 228 1
0.00852106 -0.642753 2.27602 200 220 231 1
0.00547231 -0.569368 2.30742 198 218 229 1
-0.491644 -0.617042 1.98042 232 235 239 1
-0.0798079 -0.609122 2.32357 181 204 219 1
-0.514009 -0.594559 1.95117 229 239 233 1
-0.459138 -0.35345 2.12496 46 103 193 1
-0.535506 -0.603881 1.91004 232 238 237 1
-0.676138 -0.39434 1.77453 47 71 89 1
0.125279 -0.834518 2.1851 214 231 240 1
0.19963 -0.321053 2.25199 212 228 240 1
-0.682112 -0.493865 1.72881 58 85 106 1
-0.496408 -0.606781 1.96751 232 238 237 1
-0.385185 -0.51469 2.17964 191 210 225 1
-0.122942 -0.797052 2.32729 178 204 218 1
-0.538534 -0.448483 1.95167 211 225 224 1
-0.233071 -0.619068 2.3928 71 128 177 1
-0.699086 -0.370038 1.73444 44 66 84 1
-0.470633 -0.294305 2.13613 125 191 212 1
-0.261081 -0.365887 2.43526 201 205 216 1
0.27649 -0.481795 2.19255 219 236 245 1
0.276313 -0.484197 2.19344 218 234 246 1
-0.246585 -0.564605 2.40324 137 182 209 1
0.0748223 -0.638985 2.24783 209 227 238 1
0.223525 -0.23462 2.26831 227 239 249 1
0.00866147 -0.315711 2.36193 197 214 227 1
-0.531931 -0.286898 2.02727 59 68 82 1
-0.566481 -0.401452 1.92713 44 182 215 1
-0.386681 -0.567761 2.15488 173 200 221 1
0.209189 -0.642142 2.18884 218 235 244 1
-0.559288 -0.277363 1.98074 88 171 206 1
-0.244609 -0.47446 2.42436 87 156 180 1
-0.395766 -0.529235 2.15509 165 177 177 1
-0.556891 -0.471722 1.91478 218 225 228 1
-0.556382 -0.46868 1.92702 199 206 215 1
-0.0788495 -0.581234 2.34081 184 208 220 1
0.204991 -0.915514 2.12599 215 231 243 1
-0.25927 -0.67184 2.33041 165 168 223 1
-0.655202 -0.508438 1.77755 52 79 100 1
0.163912 -0.241283 2.29118 211 226 235 1
0.235042 -0.592473 2.18858 218 235 244 1
0.0355929 -0.618274 2.28458 203 223 234 1
0.229048 -0.893428 2.12641 218 232 244 1
-0.753573 -0.470391 1.78275 49 78 99 1
-0.579714 -0.46091 1.88331 95 94 143 1
-0.348473 -0.633679 2.19995 211 225 223 1
-0.535059 -0.473399 1.94673 216 226 226 1
-0.6951 -0.480481 1.70493 47 74 95 1
-0.497897 -0.412937 2.04046 41 78 199 1
-0.508666 -0.482558 1.9967 216 226 226 1
-0.413076 -0.361634 2.18286 74 189 222 1
0.193334 -0.474215 2.22048 215 233 244 1
-0.504053 -0.280183 2.08878 36 46 64 1
-0.270625 -0.4266 2.3966 138 178 203 1
-0.257443 -0.703489 2.31139 45 25 191 1
-0.5627 -0.451282 1.91503 145 158 180 1
-0.419907 -0.661121 2.0864 76 71 169 1
-0.540578 -0.473977 1.95309 215 224 227 1
-0.303237 -0.720359 2.27895 168 222 229 1
-0.564361 -0.211582 1.99745 184 181 190 1
-0.477294 -0.324762 2.10939 50 98 185 1
0.00695043 -0.739303 2.28004 201 223 234 1
-0.482768 -0.3029 2.10532 54 127 178 1
-0.5069 -0.519022 2.00604 222 230 230 1
-0.258588 -0.47618 2.39646 75 114 141 1
-0.0170455 -0.361843 2.36133 193 212 225 1
-0.536754 -0.299789 1.99321 155 185 202 1
-0.406249 -0.325026 2.20431 11 54 81 1
-0.482305 -0.33046 2.10381 37 81 173 1
-0.499705 -0.526041 1.9926 221 228 231 1
-0.30017 -0.400583 2.3431 206 216 223 1
-0.477591 -0.345847 2.10221 70 124 210 1
-0.472471 -0.277582 2.14497 127 185 220 1
-0.50865 -0.254682 2.08101 92 165 229 1
-0.509835 -0.556485 1.97935 113 134 93 1
-0.374332 -0.608476 2.17114 201 219 226 1
-0.336567 -0.69171 2.183 216 228 228 1
-0.355314 -0.508206 2.22523 33 194 222 1
0.025217 -0.258162 2.36696 198 216 227 1
-0.581254 -0.384815 1.91209 177 178 246 1
-0.571383 -0.435105 1.91182 18 34 130 1
-0.276861 -0.691512 2.30267 102 179 215 1
0.0242235 -0.510707 2.31223 194 221 231 1
-0.102893 -0.693363 2.32589 185 209 221 1
-0.583261 -0.39761 1.90004 44 38 180 1
-0.613419 -0.156138 1.93121 44 85 177 1
-0.548166 -0.38351 1.95041 117 201 223 1
-0.664731 -0.405331 1.79678 45 70 90 1
0.10276 -0.77818 2.19089 215 232 241 1
-0.391936 -0.705161 2.09675 60 46 141 1
-0.720079 -0.111163 1.7834 25 36 50 1
-0.28004 -0.493069 2.35451 132 208 231 1
